# .PCD v0.7 - Point Cloud Data file format
VERSION 0.7
FIELDS x y z
SIZE 4 4 4
TYPE F F F
COUNT 1 1 1
WIDTH 1849
HEIGHT 1
VIEWPOINT 0 0 0 1 0 0 0
POINTS 1849
DATA ascii
-0.78600001 4.8210001 -1.39
-0.796 4.835 -1.395
-0.80800003 4.8130002 -1.3890001
-0.815 4.7620001 -1.374
-0.82700002 4.7459998 -1.37
-0.85000002 4.783 -1.382
-0.87599999 4.842 -1.402
-0.88700002 4.8150001 -1.3940001
-0.898 4.8319998 -1.4
-0.91299999 4.8299999 -1.4
-0.93400002 4.8579998 -1.41
-0.93800002 4.7969999 -1.392
-0.95099998 4.7849998 -1.3890001
-0.96499997 4.7779999 -1.388
-0.97399998 4.7820001 -1.3890001
-0.99599999 4.8109999 -1.399
-1.0089999 4.8010001 -1.397
-1.0190001 4.7729998 -1.3890001
-1.044 4.8150001 -1.403
-1.045 4.7480001 -1.383
-1.063 4.7579999 -1.388
-1.074 4.7709999 -1.392
-1.0650001 4.665 -1.36
-1.087 4.6929998 -1.37
-1.112 4.7309999 -1.383
-1.119 4.698 -1.373
-1.14 4.7199998 -1.382
-1.164 4.7529998 -1.393
-1.186 4.7779999 -1.402
-1.194 4.776 -1.402
-1.187 4.6869998 -1.375
-1.227 4.7789998 -1.406
-1.252 4.8119998 -1.418
-1.26 4.7839999 -1.41
-1.268 4.7529998 -1.401
-1.275 4.7189999 -1.392
-1.283 4.723 -1.393
-1.294 4.704 -1.3890001
-1.302 4.6760001 -1.381
-1.332 4.723 -1.398
-1.359 4.763 -1.4119999
-1.375 4.7610002 -1.4119999
-1.375 4.7329998 -1.404
-1.399 4.7600002 -1.414
-1.408 4.737 -1.408
-1.425 4.7379999 -1.41
-1.436 4.7210002 -1.406
-1.448 4.7090001 -1.403
-1.466 4.7129998 -1.406
-1.4680001 4.6950002 -1.401
-1.479 4.6789999 -1.398
-1.489 4.658 -1.392
-1.513 4.684 -1.402
-1.528 4.6789999 -1.402
-1.5420001 4.671 -1.401
-1.567 4.6989999 -1.4119999
-1.577 4.6789999 -1.4069999
-1.573 4.6440001 -1.396
-1.596 4.6630001 -1.404
-1.601 4.6290002 -1.395
-1.623 4.6469998 -1.402
-1.641 4.6490002 -1.405
-1.6440001 4.6139998 -1.395
-1.6569999 4.6030002 -1.393
-1.6569999 4.5830002 -1.387
-1.684 4.6100001 -1.398
-1.697 4.6020002 -1.397
-1.724 4.6290002 -1.408
-1.7410001 4.6290002 -1.409
-1.756 4.625 -1.41
-1.768 4.6350002 -1.414
-1.7869999 4.6399999 -1.418
-1.798 4.6259999 -1.415
-1.826 4.6560001 -1.427
-1.831 4.625 -1.418
-1.8380001 4.5999999 -1.4119999
-1.8559999 4.6030002 -1.415
-1.87 4.5970001 -1.415
-1.872 4.5799999 -1.41
-1.888 4.579 -1.4119999
-1.896 4.5570002 -1.406
-1.9119999 4.5549998 -1.408
-1.924 4.5440001 -1.406
-1.9450001 4.553 -1.411
-1.951 4.5279999 -1.405
-1.961 4.5320001 -1.4069999
-1.976 4.5279999 -1.408
-1.9960001 4.5339999 -1.4119999
-2.0139999 4.5380001 -1.415
-2.029 4.5310001 -1.415
-2.0409999 4.52 -1.414
-2.0550001 4.513 -1.414
-2.0510001 4.4860001 -1.405
-2.0610001 4.4720001 -1.403
-2.0840001 4.4829998 -1.409
-2.0999999 4.4819999 -1.411
-2.119 4.4860001 -1.414
-2.1370001 4.487 -1.4170001
-2.1470001 4.4720001 -1.414
-2.138 4.434 -1.402
-2.1670001 4.46 -1.414
-2.1760001 4.4429998 -1.41
-2.1949999 4.447 -1.414
-2.194 4.4089999 -1.403
-2.2149999 4.4159999 -1.408
-2.2349999 4.421 -1.4119999
-2.2309999 4.3969998 -1.405
-2.2479999 4.395 -1.406
-2.257 4.3790002 -1.403
-2.277 4.3839998 -1.408
-2.2809999 4.3579998 -1.401
-2.2969999 4.3559999 -1.403
-2.3050001 4.3390002 -1.399
-2.3139999 4.3379998 -1.401
-2.3180001 4.3130002 -1.3940001
-2.326 4.2950001 -1.39
-2.3510001 4.3099999 -1.398
-2.359 4.2919998 -1.395
-2.3800001 4.2979999 -1.399
-2.3940001 4.2909999 -1.399
-2.401 4.289 -1.4
-2.4189999 4.289 -1.403
-2.425 4.2680001 -1.398
-2.434 4.2529998 -1.395
-2.444 4.2399998 -1.393
-2.4519999 4.2220001 -1.39
-2.4790001 4.2379999 -1.398
-2.4820001 4.2290001 -1.396
-2.503 4.2319999 -1.401
-2.5109999 4.2160001 -1.398
-2.523 4.2069998 -1.397
-2.543 4.21 -1.401
-2.563 4.2119999 -1.405
-2.586 4.2199998 -1.411
-2.5999999 4.2280002 -1.415
-2.6140001 4.2210002 -1.415
-2.6070001 4.1799998 -1.403
-2.608 4.1529999 -1.396
-2.6300001 4.1589999 -1.402
-2.641 4.1479998 -1.401
-2.6670001 4.1599998 -1.408
-2.677 4.1609998 -1.41
-2.658 4.1030002 -1.392
-2.7 4.1389999 -1.408
-2.7119999 4.1290002 -1.408
-2.72 4.112 -1.405
-2.727 4.0960002 -1.402
-2.743 4.092 -1.403
-2.766 4.112 -1.4119999
-2.7750001 4.098 -1.411
-2.79 4.092 -1.4119999
-2.8010001 4.0809999 -1.411
-2.8010001 4.053 -1.403
-2.7969999 4.0209999 -1.395
-2.813 4.0170002 -1.396
-2.813 4.0029998 -1.393
-2.8369999 4.0110002 -1.399
-2.8559999 4.0100002 -1.402
-2.8699999 4.0040002 -1.403
-2.898 4.0149999 -1.411
-2.9070001 4.0009999 -1.409
-2.9189999 3.9920001 -1.409
-2.9260001 3.987 -1.409
-2.9560001 4.0029998 -1.419
-2.9530001 3.9719999 -1.411
-2.971 3.97 -1.414
-2.9790001 3.9549999 -1.411
-2.994 3.9489999 -1.4119999
-3.01 3.944 -1.414
-3.013 3.9360001 -1.413
-3.026 3.927 -1.413
-3.053 3.937 -1.421
-3.063 3.924 -1.419
-3.076 3.914 -1.419
-3.0869999 3.9030001 -1.419
-3.118 3.9170001 -1.428
-3.098 3.8670001 -1.4119999
-3.0639999 3.813 -1.393
-3.098 3.8299999 -1.403
-3.1229999 3.8369999 -1.41
-3.1400001 3.8329999 -1.4119999
-3.1589999 3.8299999 -1.415
-3.158 3.806 -1.409
-3.164 3.789 -1.406
-3.187 3.8039999 -1.415
-3.1930001 3.7869999 -1.4119999
-3.2 3.7709999 -1.409
-3.2130001 3.7620001 -1.41
-3.2149999 3.7409999 -1.405
-3.2390001 3.7449999 -1.411
-3.2460001 3.7409999 -1.4119999
-3.2479999 3.72 -1.4069999
-3.2809999 3.734 -1.4170001
-3.3080001 3.74 -1.424
-3.319 3.7290001 -1.424
-3.332 3.72 -1.424
-3.3210001 3.6849999 -1.414
-3.352 3.6960001 -1.423
-3.3670001 3.7 -1.427
-3.3659999 3.6760001 -1.421
-3.3889999 3.678 -1.427
-3.4059999 3.6730001 -1.429
-3.3989999 3.642 -1.421
-3.418 3.6400001 -1.424
-3.424 3.6240001 -1.4220001
-3.4449999 3.6340001 -1.428
-3.457 3.6240001 -1.429
-3.467 3.612 -1.428
-3.4679999 3.5899999 -1.424
-3.4649999 3.5639999 -1.4170001
-3.4849999 3.563 -1.421
-3.5139999 3.569 -1.429
-3.527 3.572 -1.432
-3.539 3.5610001 -1.432
-3.5610001 3.5599999 -1.437
-3.569 3.5469999 -1.436
-3.5910001 3.546 -1.441
-3.608 3.54 -1.443
-3.605 3.5150001 -1.437
-3.608 3.507 -1.436
-3.648 3.523 -1.448
-3.6530001 3.507 -1.446
-3.671 3.5020001 -1.449
-3.691 3.4979999 -1.4529999
-3.6960001 3.4809999 -1.45
-3.7030001 3.477 -1.451
-3.698 3.451 -1.444
-3.694 3.425 -1.438
-3.7119999 3.4200001 -1.441
-3.6730001 3.3629999 -1.42
-3.6689999 3.339 -1.414
-3.698 3.3440001 -1.4220001
-3.7309999 3.3529999 -1.431
-3.7679999 3.375 -1.444
-3.779 3.3629999 -1.444
-3.7939999 3.355 -1.446
-3.7969999 3.336 -1.443
-3.825 3.339 -1.45
-3.8499999 3.3399999 -1.456
-3.8759999 3.3410001 -1.4630001
-3.8759999 3.3299999 -1.46
-3.852 3.29 -1.447
-3.8859999 3.2969999 -1.456
-3.892 3.2809999 -1.454
-3.904 3.27 -1.455
-3.8929999 3.2409999 -1.447
-3.904 3.2290001 -1.447
-3.9260001 3.237 -1.454
-3.9400001 3.227 -1.455
-3.938 3.2049999 -1.45
-3.948 3.1930001 -1.45
-3.964 3.1849999 -1.4529999
-3.96 3.1619999 -1.447
-3.9879999 3.164 -1.454
-3.9860001 3.152 -1.451
-3.9779999 3.125 -1.444
-3.983 3.109 -1.442
-4.027 3.1229999 -1.456
-4.0539999 3.1229999 -1.4630001
-4.0819998 3.1240001 -1.47
-4.0900002 3.1099999 -1.469
-4.1059999 3.112 -1.473
-4.1139998 3.098 -1.473
-4.119 3.082 -1.471
-4.118 3.0610001 -1.467
-4.138 3.056 -1.471
-4.1459999 3.0420001 -1.47
-4.165 3.0350001 -1.474
-4.184 3.039 -1.479
-4.1999998 3.03 -1.4809999
-4.1830001 2.9979999 -1.471
-4.197 2.9879999 -1.473
-4.197 2.9679999 -1.47
-4.197 2.9489999 -1.466
-4.2199998 2.9449999 -1.471
-4.237 2.947 -1.476
-4.2719998 2.951 -1.4859999
-4.2719998 2.931 -1.482
-4.2839999 2.9200001 -1.483
-4.2579999 2.8829999 -1.47
-4.289 2.885 -1.479
-4.289 2.865 -1.475
-4.309 2.869 -1.4809999
-4.3070002 2.848 -1.477
-4.3150001 2.8329999 -1.476
-4.3249998 2.8210001 -1.477
-4.3369999 2.809 -1.478
-4.3649998 2.8080001 -1.485
-4.368 2.79 -1.483
-4.3720002 2.783 -1.483
-4.3889999 2.7739999 -1.4859999
-4.3860002 2.753 -1.4809999
-4.4169998 2.7539999 -1.49
-4.4029999 2.7260001 -1.4809999
-4.4299998 2.723 -1.488
-4.461 2.723 -1.4960001
-4.4310002 2.6949999 -1.484
-4.4460001 2.6849999 -1.4859999
-4.4889998 2.6919999 -1.499
-4.4889998 2.6730001 -1.4960001
-4.494 2.6570001 -1.494
-4.5240002 2.655 -1.502
-4.5419998 2.6459999 -1.506
-4.5430002 2.6370001 -1.505
-4.5679998 2.6329999 -1.51
-4.5580001 2.608 -1.5039999
-4.5900002 2.6070001 -1.512
-4.5939999 2.5899999 -1.511
-4.619 2.585 -1.517
-4.6040001 2.5580001 -1.5089999
-4.598 2.5450001 -1.505
-4.5960002 2.5250001 -1.502
-4.632 2.526 -1.512
-4.6669998 2.526 -1.521
-4.6669998 2.507 -1.518
-4.6789999 2.4949999 -1.52
-4.7160001 2.4949999 -1.53
-4.7030001 2.4790001 -1.524
-4.723 2.47 -1.528
-4.7340002 2.457 -1.529
-4.7309999 2.437 -1.526
-4.7199998 2.4130001 -1.5190001
-4.7470002 2.4070001 -1.526
-4.757 2.3940001 -1.527
-4.7610002 2.3859999 -1.527
-4.7979999 2.3859999 -1.5369999
-4.8169999 2.3770001 -1.541
-4.8270001 2.362 -1.5420001
-4.8439999 2.352 -1.545
-4.8520002 2.3369999 -1.545
-4.8520002 2.3180001 -1.543
-4.8730001 2.319 -1.549
-4.875 2.3010001 -1.5470001
-4.9029999 2.2950001 -1.554
-4.915 2.2820001 -1.556
-4.9190001 2.2650001 -1.5549999
-4.9559999 2.263 -1.5650001
-4.9679999 2.25 -1.567
-4.9749999 2.244 -1.568
-4.9959998 2.234 -1.572
-5.0120001 2.2219999 -1.575
-5.0279999 2.21 -1.5779999
-5.0279999 2.1919999 -1.576
-5.0539999 2.184 -1.5829999
-5.066 2.1700001 -1.584
-5.0599999 2.1589999 -1.581
-5.0879998 2.152 -1.5880001
-5.0650001 2.1229999 -1.5779999
-5.0949998 2.1170001 -1.586
-5.119 2.108 -1.592
-5.1329999 2.095 -1.594
-5.132 2.076 -1.592
-5.1430001 2.0699999 -1.594
-5.1529999 2.056 -1.596
-5.2280002 2.0669999 -1.619
-5.2399998 2.052 -1.62
-5.2410002 2.0339999 -1.619
-5.2389998 2.0139999 -1.6160001
-5.2610002 2.003 -1.6210001
-5.25 1.99 -1.6160001
-5.263 1.976 -1.619
-5.2820001 1.964 -1.623
-5.9180002 1.494 -1.768
-5.9650002 1.4859999 -1.781
-5.9569998 1.464 -1.777
-5.98 1.459 -1.783
-5.9899998 1.442 -1.785
-5.9889998 1.4220001 -1.783
-6.0019999 1.405 -1.786
-5.9959998 1.3839999 -1.783
-6.0219998 1.37 -1.79
-6.006 1.3559999 -1.784
-6.0190001 1.339 -1.7869999
-6.02 1.3200001 -1.786
-6.026 1.301 -1.786
-6.0190001 1.28 -1.783
-6.0510001 1.267 -1.7920001
-6.0279999 1.242 -1.783
-6.0419998 1.235 -1.7869999
-6.0570002 1.2180001 -1.791
-6.0359998 1.1950001 -1.783
-6.0619998 1.1799999 -1.79
-6.0489998 1.158 -1.785
-6.053 1.1390001 -1.785
-6.0539999 1.119 -1.784
-6.0669999 1.112 -1.788
-6.0799999 1.094 -1.791
-6.059 1.071 -1.783
-6.0999999 1.058 -1.795
-6.079 1.035 -1.7869999
-6.0799999 1.016 -1.786
-6.1009998 0.99900001 -1.7920001
-6.0929999 0.98799998 -1.789
-6.0939999 0.96899998 -1.788
-6.1079998 0.95099998 -1.7920001
-6.0999999 0.93000001 -1.788
-6.1079998 0.912 -1.79
-6.119 0.89399999 -1.7920001
-6.1009998 0.87199998 -1.786
-6.1170001 0.85500002 -1.79
-6.1389999 0.84799999 -1.796
-6.1279998 0.82700002 -1.7920001
-6.1329999 0.80800003 -1.793
-6.1500001 0.79000002 -1.798
-6.1220002 0.76700002 -1.788
-6.1360002 0.74900001 -1.7920001
-6.1469998 0.741 -1.795
-6.138 0.72000003 -1.791
-6.1459999 0.70200002 -1.793
-6.1560001 0.68300003 -1.795
-6.1420002 0.662 -1.791
-6.152 0.64399999 -1.793
-6.1690001 0.62599999 -1.798
-6.151 0.61400002 -1.7920001
-6.1570001 0.59500003 -1.793
-6.164 0.57599998 -1.795
-6.1739998 0.55800003 -1.7970001
-6.1620002 0.537 -1.793
-6.1659999 0.51800001 -1.794
-6.1669998 0.49900001 -1.794
-6.1700001 0.48899999 -1.794
-6.1739998 0.47 -1.795
-6.177 0.45100001 -1.795
-6.1630001 0.43000001 -1.791
-6.1849999 0.412 -1.7970001
-6.1789999 0.39199999 -1.795
-6.1820002 0.373 -1.795
-6.2020001 0.35499999 -1.801
-6.178 0.34400001 -1.794
-6.1789999 0.324 -1.794
-6.1950002 0.30500001 -1.798
-6.1700001 0.285 -1.79
-6.1739998 0.266 -1.791
-6.1919999 0.24699999 -1.796
-6.1869998 0.237 -1.795
-6.1950002 0.21799999 -1.7970001
-6.1900001 0.198 -1.795
-6.1789999 0.178 -1.7920001
-6.191 0.15899999 -1.795
-6.2030001 0.14 -1.799
-6.1859999 0.12 -1.794
-6.1880002 0.11 -1.794
-6.1960001 0.090999998 -1.796
-6.1929998 0.071999997 -1.795
-6.1849999 0.052000001 -1.793
-6.21 0.033 -1.801
-6.178 0.013 -1.791
-6.1929998 -0.0060000001 -1.795
-6.2090001 -0.016000001 -1.8
-6.197 -0.035 -1.796
-6.21 -0.055 -1.801
-6.1999998 -0.074000001 -1.798
-6.2059999 -0.093999997 -1.799
-6.1869998 -0.113 -1.794
-6.2069998 -0.133 -1.8
-6.184 -0.142 -1.793
-6.1890001 -0.162 -1.795
-6.198 -0.182 -1.798
-6.1939998 -0.20100001 -1.796
-6.197 -0.221 -1.798
-6.2020001 -0.23999999 -1.799
-6.1880002 -0.259 -1.795
-6.1869998 -0.26899999 -1.795
-6.2020001 -0.289 -1.8
-6.1989999 -0.308 -1.799
-6.1869998 -0.32699999 -1.796
-6.21 -0.34799999 -1.804
-6.184 -0.366 -1.796
-6.1950002 -0.38600001 -1.799
-6.1789999 -0.39500001 -1.795
-6.1789999 -0.41499999 -1.795
-6.1719999 -0.43399999 -1.794
-6.2030001 -0.45500001 -1.804
-6.1659999 -0.472 -1.7920001
-6.197 -0.49399999 -1.802
-6.178 -0.51200002 -1.7970001
-6.1849999 -0.52200001 -1.799
-6.1830001 -0.542 -1.799
-6.177 -0.56099999 -1.798
-6.1620002 -0.579 -1.794
-6.164 -0.59899998 -1.795
-6.1620002 -0.61799997 -1.795
-6.1739998 -0.639 -1.799
-6.165 -0.648 -1.7970001
-6.1669998 -0.66799998 -1.798
-6.1630001 -0.68699998 -1.798
-6.164 -0.70700002 -1.799
-6.1550002 -0.72500002 -1.796
-6.1500001 -0.74400002 -1.796
-6.1560001 -0.764 -1.798
-6.1430001 -0.773 -1.795
-6.158 -0.79400003 -1.8
-6.151 -0.81300002 -1.799
-6.1750002 -0.83600003 -1.807
-6.178 -0.85600001 -1.809
-6.1599998 -0.87300003 -1.804
-6.1739998 -0.88499999 -1.809
-6.1859999 -0.90700001 -1.814
-6.1589999 -0.92299998 -1.806
-6.1350002 -0.93900001 -1.799
-6.1529999 -0.96100003 -1.806
-6.1389999 -0.97899997 -1.802
-6.1490002 -1 -1.807
-6.132 -1.007 -1.802
-6.1329999 -1.027 -1.803
-6.131 -1.0470001 -1.804
-6.1370001 -1.068 -1.807
-6.132 -1.087 -1.806
-6.1269999 -1.1059999 -1.8049999
-6.1209998 -1.124 -1.8049999
-6.1160002 -1.133 -1.804
-6.1199999 -1.154 -1.806
-6.112 -1.173 -1.8049999
-6.1160002 -1.193 -1.807
-6.1009998 -1.21 -1.804
-6.099 -1.23 -1.804
-6.1009998 -1.25 -1.806
-6.105 -1.261 -1.808
-6.099 -1.28 -1.807
-6.098 -1.3 -1.808
-6.0760002 -1.3150001 -1.802
-6.086 -1.337 -1.807
-6.0669999 -1.353 -1.802
-6.0869999 -1.377 -1.8099999
-6.0630002 -1.382 -1.803
-6.0749998 -1.405 -1.808
-6.0609999 -1.4220001 -1.8049999
-6.0679998 -1.443 -1.809
-6.0489998 -1.459 -1.804
-6.0510001 -1.48 -1.807
-6.0450001 -1.498 -1.806
-6.0440001 -1.508 -1.807
-6.0450001 -1.528 -1.808
-6.0349998 -1.546 -1.807
-6.026 -1.564 -1.8049999
-6.0229998 -1.5829999 -1.806
-6.02 -1.603 -1.807
-6.006 -1.619 -1.804
-5.9990001 -1.628 -1.802
-5.9910002 -1.645 -1.801
-6.0300002 -1.697 -1.817
-5.993 -1.707 -1.807
-5.9949999 -1.728 -1.809
-5.9819999 -1.745 -1.807
-5.9850001 -1.756 -1.809
-5.9850001 -1.776 -1.811
-5.9559999 -1.788 -1.803
-5.9429998 -1.804 -1.801
-5.9549999 -1.829 -1.807
-5.9590001 -1.85 -1.809
-5.9619999 -1.872 -1.812
-5.9460001 -1.877 -1.808
-5.9089999 -1.886 -1.798
-5.9029999 -1.904 -1.798
-5.908 -1.926 -1.802
-5.8639998 -1.932 -1.789
-5.8509998 -1.948 -1.7869999
-5.6659999 -2.576 -1.8049999
-5.684 -2.595 -1.812
-5.6739998 -2.612 -1.812
-5.6420002 -2.619 -1.804
-5.6350002 -2.6370001 -1.804
-5.6339998 -2.658 -1.807
-5.6259999 -2.6760001 -1.807
-5.6259999 -2.698 -1.809
-5.6129999 -2.7019999 -1.807
-5.6030002 -2.7190001 -1.806
-5.5869999 -2.733 -1.804
-5.5960002 -2.7590001 -1.809
-5.5770001 -2.7720001 -1.806
-5.5599999 -2.7850001 -1.803
-5.5689998 -2.812 -1.809
-5.5580001 -2.8169999 -1.807
-5.5539999 -2.8369999 -1.809
-5.5349998 -2.8499999 -1.8049999
-5.5370002 -2.872 -1.809
-5.5219998 -2.8870001 -1.807
-5.52 -2.908 -1.809
-5.5009999 -2.9200001 -1.806
-5.5009999 -2.931 -1.808
-5.4899998 -2.948 -1.807
-5.4829998 -2.9660001 -1.808
-5.4650002 -2.9779999 -1.8049999
-5.4640002 -3 -1.808
-5.4429998 -3.0109999 -1.804
-5.4380002 -3.0309999 -1.8049999
-5.4439998 -3.0450001 -1.809
-5.4390001 -3.0650001 -1.811
-5.4190001 -3.076 -1.807
-5.408 -3.092 -1.807
-5.3920002 -3.105 -1.804
-5.3889999 -3.1259999 -1.807
-5.382 -3.145 -1.808
-5.3649998 -3.1470001 -1.804
-5.3639998 -3.168 -1.807
-5.349 -3.1819999 -1.8049999
-5.3439999 -3.2019999 -1.807
-5.3210001 -3.211 -1.802
-5.2839999 -3.211 -1.7920001
-5.2420001 -3.2079999 -1.781
-5.3000002 -3.2550001 -1.804
-5.2909999 -3.273 -1.804
-5.3039999 -3.3039999 -1.812
-5.2719998 -3.3069999 -1.8049999
-5.2639999 -3.325 -1.8049999
-5.2480001 -3.3380001 -1.804
-5.2540002 -3.365 -1.809
-5.2249999 -3.358 -1.801
-5.224 -3.3800001 -1.804
-5.2020001 -3.3889999 -1.8
-5.21 -3.418 -1.807
-5.1869998 -3.4260001 -1.802
-5.184 -3.448 -1.8049999
-5.171 -3.4630001 -1.8049999
-5.1750002 -3.4779999 -1.808
-5.152 -3.4849999 -1.804
-5.1529999 -3.51 -1.808
-5.1269999 -3.5150001 -1.802
-5.1279998 -3.54 -1.807
-5.1090002 -3.5510001 -1.804
-5.1059999 -3.572 -1.807
-5.0890002 -3.573 -1.803
-5.0949998 -3.6010001 -1.809
-5.0669999 -3.605 -1.803
-5.0650001 -3.6270001 -1.807
-5.0469999 -3.6389999 -1.804
-5.0359998 -3.654 -1.804
-5.0289998 -3.674 -1.806
-5.0320001 -3.688 -1.809
-5.0050001 -3.6930001 -1.804
-4.9980001 -3.7119999 -1.8049999
-4.974 -3.7179999 -1.801
-4.9790001 -3.747 -1.807
-4.9520001 -3.7509999 -1.801
-4.96 -3.7809999 -1.809
-4.9299998 -3.77 -1.799
-4.9320002 -3.7969999 -1.8049999
-4.915 -3.8080001 -1.803
-4.9089999 -3.829 -1.8049999
-4.8930001 -3.8399999 -1.804
-4.8909998 -3.8640001 -1.808
-4.8699999 -3.872 -1.804
-4.8670001 -3.882 -1.8049999
-4.8499999 -3.8940001 -1.804
-4.8369999 -3.908 -1.803
-4.8319998 -3.9289999 -1.806
-4.816 -3.9419999 -1.8049999
-4.8000002 -3.9530001 -1.803
-4.8119998 -3.977 -1.811
-4.7849998 -3.98 -1.8049999
-4.7709999 -3.993 -1.804
-4.7649999 -4.013 -1.807
-4.7449999 -4.0219998 -1.804
-4.7379999 -4.0419998 -1.806
-4.7160001 -4.0489998 -1.802
-4.71 -4.0570002 -1.802
-4.7259998 -4.0970001 -1.814
-4.6820002 -4.0840001 -1.801
-4.677 -4.1059999 -1.8049999
-4.6760001 -4.131 -1.809
-4.6500001 -4.1339998 -1.804
-4.6409998 -4.1529999 -1.806
-4.6399999 -4.165 -1.808
-4.6069999 -4.1609998 -1.8
-4.6100001 -4.1900001 -1.807
-4.5939999 -4.2020001 -1.8049999
-4.5890002 -4.224 -1.809
-4.5760002 -4.2389998 -1.809
-4.5549998 -4.2459998 -1.806
-4.553 -4.257 -1.808
-4.5409999 -4.2729998 -1.808
-4.5190001 -4.2789998 -1.8049999
-4.5349998 -4.3210001 -1.817
-4.4920001 -4.3080001 -1.8049999
-4.4949999 -4.3379998 -1.812
-4.4759998 -4.3470001 -1.809
-4.4710002 -4.355 -1.8099999
-4.4499998 -4.362 -1.807
-4.4390001 -4.3790002 -1.808
-4.4239998 -4.3909998 -1.808
-4.4089999 -4.4039998 -1.807
-4.4029999 -4.4260001 -1.811
-4.3959999 -4.447 -1.814
-4.3740001 -4.4380002 -1.807
-4.3629999 -4.4549999 -1.808
-4.3460002 -4.4660001 -1.807
-4.3410001 -4.4889998 -1.811
-4.3280001 -4.5040002 -1.812
-4.316 -4.5190001 -1.812
-4.296 -4.527 -1.8099999
-4.2880001 -4.5320001 -1.809
-4.276 -4.5489998 -1.811
-4.2639999 -4.5650001 -1.812
-4.2459998 -4.5739999 -1.8099999
-4.2280002 -4.5830002 -1.808
-4.2119999 -4.5949998 -1.808
-4.2179999 -4.631 -1.817
-4.1880002 -4.612 -1.807
-4.1869998 -4.6409998 -1.813
-4.1700001 -4.651 -1.812
-4.1609998 -4.6700001 -1.814
-4.1269999 -4.6609998 -1.8049999
-4.125 -4.6890001 -1.811
-4.098 -4.6869998 -1.8049999
-4.1040001 -4.7090001 -1.812
-4.0830002 -4.7150002 -1.809
-4.0640001 -4.724 -1.807
-4.052 -4.7389998 -1.808
-4.0469999 -4.7639999 -1.813
-4.0209999 -4.763 -1.808
-4.0120001 -4.783 -1.811
-4.0019999 -4.7859998 -1.809
-3.9849999 -4.796 -1.808
-3.9760001 -4.816 -1.811
-3.9579999 -4.8249998 -1.8099999
-3.9319999 -4.8239999 -1.8049999
-3.9189999 -4.8400002 -1.806
-3.9100001 -4.8600001 -1.809
-3.902 -4.8660002 -1.809
-3.8859999 -4.8759999 -1.808
-3.8800001 -4.901 -1.813
-3.8540001 -4.8990002 -1.808
-3.8410001 -4.914 -1.809
-3.835 -4.9380002 -1.814
-3.8039999 -4.9310002 -1.806
-3.802 -4.9439998 -1.809
-3.7869999 -4.9559999 -1.809
-3.763 -4.9569998 -1.8049999
-3.7539999 -4.9780002 -1.808
-3.7390001 -4.9899998 -1.808
-3.721 -4.9990001 -1.807
-3.7119999 -5.02 -1.811
-3.6960001 -5.0149999 -1.807
-3.6800001 -5.026 -1.807
-3.6630001 -5.0359998 -1.806
-3.6570001 -5.0619998 -1.811
-3.6370001 -5.0669999 -1.809
-3.6199999 -5.0770001 -1.808
-3.6059999 -5.0910001 -1.809
-3.598 -5.0970001 -1.809
-3.5829999 -5.1100001 -1.8099999
-3.5710001 -5.1259999 -1.812
-3.546 -5.1240001 -1.807
-3.5380001 -5.1479998 -1.812
-3.5190001 -5.1539998 -1.8099999
-3.5120001 -5.1620002 -1.811
-3.4920001 -5.1680002 -1.809
-3.484 -5.1900001 -1.813
-3.4679999 -5.2020001 -1.814
-3.4489999 -5.2090001 -1.812
-3.437 -5.2259998 -1.814
-3.4159999 -5.23 -1.812
-3.4100001 -5.2389998 -1.813
-3.401 -5.2610002 -1.817
-3.3789999 -5.263 -1.814
-3.3570001 -5.2659998 -1.811
-3.3469999 -5.2859998 -1.8150001
-3.3310001 -5.2979999 -1.8150001
-3.3139999 -5.3080001 -1.8150001
-3.3080001 -5.3169999 -1.817
-3.2880001 -5.322 -1.8150001
-3.2709999 -5.3309999 -1.814
-3.26 -5.3509998 -1.818
-3.2460001 -5.3660002 -1.8200001
-3.2260001 -5.3720002 -1.818
-3.2049999 -5.375 -1.8150001
-3.1889999 -5.3850002 -1.8150001
-3.1800001 -5.3899999 -1.8150001
-3.161 -5.3969998 -1.814
-3.138 -5.395 -1.8099999
-3.115 -5.395 -1.807
-3.095 -5.4000001 -1.8049999
-3.072 -5.3990002 -1.801
-3.056 -5.3889999 -1.796
-3.039 -5.3990002 -1.796
-3.007 -5.382 -1.786
-2.9860001 -5.3839998 -1.784
-2.9679999 -5.3920002 -1.783
-2.9419999 -5.3839998 -1.778
-2.925 -5.3920002 -1.777
-2.9130001 -5.3920002 -1.775
-2.8870001 -5.3839998 -1.7690001
-2.865 -5.3829999 -1.766
-2.848 -5.3920002 -1.766
-2.8269999 -5.3920002 -1.763
-2.813 -5.4060001 -1.765
-2.7909999 -5.4060001 -1.762
-2.7750001 -5.395 -1.756
-2.7490001 -5.3870001 -1.75
-2.7290001 -5.3889999 -1.748
-2.7079999 -5.3889999 -1.745
-2.687 -5.3899999 -1.743
-2.6700001 -5.3969998 -1.742
-2.6570001 -5.414 -1.745
-2.6340001 -5.3889999 -1.735
-2.6170001 -5.3969998 -1.735
-2.5929999 -5.3899999 -1.73
-2.573 -5.3909998 -1.727
-2.5539999 -5.3959999 -1.726
-2.5320001 -5.3930001 -1.723
-2.5179999 -5.4060001 -1.724
-2.503 -5.3969998 -1.72
-2.48 -5.3920002 -1.716
-2.46 -5.3909998 -1.7130001
-2.4460001 -5.4060001 -1.715
-2.4170001 -5.3870001 -1.706
-2.3989999 -5.3930001 -1.705
-2.3840001 -5.4039998 -1.707
-2.3699999 -5.3959999 -1.7029999
-2.3499999 -5.3959999 -1.7
-2.325 -5.3839998 -1.694
-2.313 -5.402 -1.697
-2.2950001 -5.4070001 -1.697
-2.2809999 -5.4219999 -1.699
-2.2639999 -5.4060001 -1.692
-2.2509999 -5.4219999 -1.6950001
-2.2360001 -5.434 -1.697
-2.214 -5.4289999 -1.693
-2.198 -5.4390001 -1.694
-2.188 -5.4640002 -1.7
-2.1600001 -5.4419999 -1.691
-2.1570001 -5.46 -1.6950001
-2.148 -5.4879999 -1.7029999
-2.1170001 -5.4590001 -1.691
-2.0969999 -5.4580002 -1.688
-2.0869999 -5.4829998 -1.694
-2.066 -5.4809999 -1.691
-2.053 -5.5 -1.6950001
-2.0439999 -5.5009999 -1.6950001
-2.0179999 -5.4819999 -1.687
-2.0039999 -5.4990001 -1.6900001
-1.984 -5.4970002 -1.687
-1.962 -5.4879999 -1.682
-1.943 -5.4910002 -1.681
-1.928 -5.5019999 -1.683
-1.918 -5.5019999 -1.682
-1.902 -5.5110002 -1.683
-1.8839999 -5.5159998 -1.682
-1.862 -5.5089998 -1.678
-1.846 -5.5180001 -1.679
-1.831 -5.5289998 -1.681
-1.807 -5.5170002 -1.675
-1.793 -5.5029998 -1.67
-1.783 -5.5310001 -1.677
-1.766 -5.5380001 -1.678
-1.743 -5.5240002 -1.671
-1.729 -5.5419998 -1.675
-1.707 -5.5310001 -1.67
-1.689 -5.5359998 -1.67
-1.681 -5.5409999 -1.671
-1.661 -5.5370002 -1.668
-1.6390001 -5.5250001 -1.6619999
-1.623 -5.5359998 -1.664
-1.603 -5.5300002 -1.661
-1.587 -5.5409999 -1.6619999
-1.572 -5.5549998 -1.665
-1.5549999 -5.5300002 -1.656
-1.543 -5.5510001 -1.6619999
-1.526 -5.5580001 -1.6619999
-1.505 -5.5510001 -1.659
-1.487 -5.5539999 -1.658
-1.472 -5.5679998 -1.661
-1.45 -5.5560002 -1.656
-1.438 -5.5440001 -1.651
-1.421 -5.5479999 -1.651
-1.404 -5.5560002 -1.652
-1.381 -5.5380001 -1.645
-1.364 -5.5450001 -1.646
-1.3430001 -5.5320001 -1.64
-1.336 -5.5419998 -1.643
-1.321 -5.5549998 -1.646
-1.299 -5.5409999 -1.64
-1.279 -5.533 -1.636
-1.266 -5.5560002 -1.642
-1.2539999 -5.5840001 -1.65
-1.238 -5.5960002 -1.652
-1.224 -5.5749998 -1.645
-1.202 -5.5570002 -1.638
-1.184 -5.5570002 -1.637
-1.165 -5.553 -1.635
-1.152 -5.5809999 -1.642
-1.13 -5.5619998 -1.635
-1.11 -5.552 -1.631
-1.102 -5.5599999 -1.633
-1.092 -5.6020002 -1.645
-1.0700001 -5.5799999 -1.637
-1.0549999 -5.598 -1.642
-1.031 -5.566 -1.63
-1.013 -5.5669999 -1.63
-0.99199998 -5.5489998 -1.623
-0.98500001 -5.5580001 -1.626
-0.97299999 -5.5929999 -1.636
-0.94999999 -5.5640001 -1.626
-0.93300003 -5.5689998 -1.626
-0.91100001 -5.546 -1.618
-0.89099997 -5.5320001 -1.613
-0.875 -5.546 -1.6160001
-0.86699998 -5.5510001 -1.617
-0.85000002 -5.5570002 -1.619
-0.833 -5.5619998 -1.619
-0.81699997 -5.5739999 -1.622
-0.79699999 -5.5630002 -1.618
-0.78299999 -5.5900002 -1.626
-0.76599997 -5.5970001 -1.627
-0.75599998 -5.5879998 -1.624
-0.73500001 -5.5640001 -1.6160001
-0.71899998 -5.5799999 -1.62
-0.70200002 -5.5819998 -1.62
-0.68599999 -5.599 -1.624
-0.66600001 -5.5770001 -1.617
-0.648 -5.5770001 -1.6160001
-0.63700002 -5.559 -1.61
-0.61799997 -5.5479999 -1.6059999
-0.60500002 -5.586 -1.617
-0.58600003 -5.5739999 -1.613
-0.56999999 -5.5970001 -1.62
-0.55199999 -5.5929999 -1.618
-0.53200001 -5.5700002 -1.61
-0.52499998 -5.5879998 -1.6160001
-0.50800002 -5.5949998 -1.617
-0.49200001 -5.6199999 -1.624
-0.47400001 -5.6170001 -1.623
-0.45699999 -5.6279998 -1.626
-0.44 -5.6279998 -1.626
-0.42199999 -5.6269999 -1.625
-0.412 -5.6220002 -1.623
-0.39399999 -5.6059999 -1.618
-0.37599999 -5.6129999 -1.62
-0.359 -5.612 -1.619
-0.34 -5.5999999 -1.615
-0.32300001 -5.6030002 -1.6160001
-0.31400001 -5.6129999 -1.619
-0.29699999 -5.6100001 -1.617
-0.28 -5.6339998 -1.624
-0.26199999 -5.6160002 -1.619
-0.244 -5.6279998 -1.622
-0.228 -5.6609998 -1.632
-0.20900001 -5.6199999 -1.619
-0.2 -5.6090002 -1.6160001
-0.182 -5.6110001 -1.6160001
-0.163 -5.5640001 -1.601
-0.146 -5.5689998 -1.603
-0.12899999 -5.6069999 -1.614
-0.111 -5.5939999 -1.61
-0.093000002 -5.5910001 -1.609
-0.075999998 -5.6059999 -1.614
-0.067000002 -5.6240001 -1.619
-0.050000001 -5.6389999 -1.624
-0.032000002 -5.652 -1.628
-0.014 -5.605 -1.613
0.003 -5.5819998 -1.6059999
0.021 -5.6090002 -1.614
0.029999999 -5.6090002 -1.614
0.046999998 -5.6069999 -1.614
0.064999998 -5.6290002 -1.6210001
0.082999997 -5.619 -1.618
0.1 -5.6059999 -1.614
0.119 -5.6399999 -1.624
0.13699999 -5.6490002 -1.627
0.146 -5.6560001 -1.63
0.163 -5.6370001 -1.624
0.18000001 -5.6209998 -1.619
0.198 -5.6220002 -1.62
0.215 -5.6059999 -1.615
0.23100001 -5.5689998 -1.604
0.248 -5.5739999 -1.6059999
0.259 -5.6079998 -1.6160001
0.27700001 -5.6129999 -1.618
0.29499999 -5.6240001 -1.622
0.31299999 -5.632 -1.624
0.331 -5.6279998 -1.623
0.34799999 -5.6209998 -1.622
0.36700001 -5.631 -1.625
0.375 -5.619 -1.622
0.39199999 -5.612 -1.62
0.41100001 -5.638 -1.628
0.428 -5.6170001 -1.622
0.44600001 -5.6199999 -1.623
0.46599999 -5.645 -1.632
0.47400001 -5.6420002 -1.631
0.49200001 -5.6389999 -1.63
0.50999999 -5.6370001 -1.63
0.528 -5.6389999 -1.632
0.54500002 -5.6339998 -1.63
0.56099999 -5.6129999 -1.624
0.57999998 -5.6230001 -1.628
0.58700001 -5.6069999 -1.623
0.60600001 -5.618 -1.627
0.62199998 -5.605 -1.624
0.63999999 -5.6079998 -1.626
0.65899998 -5.6160002 -1.6289999
0.67799997 -5.6230001 -1.632
0.69300002 -5.6020002 -1.626
0.70300001 -5.6110001 -1.6289999
0.72299999 -5.625 -1.6339999
0.74000001 -5.6139998 -1.631
0.76099998 -5.638 -1.6390001
0.77499998 -5.6069999 -1.63
0.78899997 -5.5819998 -1.623
0.80599999 -5.579 -1.623
0.81599998 -5.5840001 -1.625
0.83200002 -5.572 -1.622
0.84899998 -5.5650001 -1.6210001
0.86400002 -5.546 -1.6160001
0.88 -5.533 -1.613
0.89499998 -5.5170002 -1.609
0.912 -5.513 -1.608
0.92199999 -5.5209999 -1.6109999
0.93699998 -5.506 -1.607
0.95999998 -5.5320001 -1.6160001
0.98100001 -5.5489998 -1.623
1 -5.5580001 -1.626
1.017 -5.5489998 -1.624
1.0369999 -5.559 -1.6289999
1.044 -5.5489998 -1.626
1.063 -5.5539999 -1.6289999
1.08 -5.5469999 -1.627
1.094 -5.526 -1.622
1.114 -5.5380001 -1.627
1.131 -5.5320001 -1.626
1.15 -5.5359998 -1.6289999
1.161 -5.546 -1.632
1.178 -5.54 -1.632
1.197 -5.5440001 -1.6339999
1.2180001 -5.553 -1.638
1.234 -5.5440001 -1.636
1.249 -5.5320001 -1.6339999
1.27 -5.5409999 -1.638
1.276 -5.5279999 -1.635
1.295 -5.5339999 -1.637
1.319 -5.5539999 -1.645
1.331 -5.5289998 -1.6390001
1.351 -5.5339999 -1.642
1.372 -5.5450001 -1.646
1.382 -5.546 -1.648
1.399 -5.5440001 -1.648
1.419 -5.5469999 -1.65
1.437 -5.546 -1.652
1.456 -5.5469999 -1.653
1.474 -5.546 -1.655
1.4910001 -5.5380001 -1.653
1.5039999 -5.5500002 -1.658
1.521 -5.5430002 -1.658
1.544 -5.559 -1.664
1.558 -5.5430002 -1.661
1.573 -5.5289998 -1.658
1.599 -5.5549998 -1.668
3.3440001 -5.0120001 -1.743
3.3499999 -4.987 -1.738
3.3789999 -4.9959998 -1.745
3.3959999 -4.9879999 -1.7460001
3.402 -4.9629998 -1.7410001
3.4170001 -4.967 -1.744
3.431 -4.9549999 -1.744
3.4349999 -4.927 -1.737
3.4560001 -4.9239998 -1.74
3.474 -4.9180002 -1.742
3.4849999 -4.901 -1.74
3.5050001 -4.8959999 -1.742
3.5220001 -4.9029999 -1.747
3.5339999 -4.8870001 -1.745
3.5469999 -4.8730001 -1.744
3.559 -4.8569999 -1.742
3.575 -4.8470001 -1.743
3.592 -4.8379998 -1.743
3.602 -4.8200002 -1.7410001
3.6129999 -4.8189998 -1.743
3.6240001 -4.802 -1.74
3.6489999 -4.8039999 -1.7460001
3.6489999 -4.7729998 -1.738
3.6659999 -4.7639999 -1.739
3.694 -4.7690001 -1.7460001
3.697 -4.743 -1.74
3.7030001 -4.7340002 -1.739
3.7290001 -4.737 -1.744
3.737 -4.7160001 -1.7410001
3.7460001 -4.697 -1.738
3.7690001 -4.6960001 -1.742
3.7739999 -4.6719999 -1.737
3.7920001 -4.6799998 -1.743
3.8010001 -4.6599998 -1.74
3.8139999 -4.6469998 -1.739
3.822 -4.6259999 -1.7359999
3.8529999 -4.6339998 -1.744
3.852 -4.6030002 -1.7359999
3.875 -4.6009998 -1.74
3.881 -4.5939999 -1.74
3.8929999 -4.579 -1.739
3.8970001 -4.5549998 -1.734
3.9230001 -4.5560002 -1.739
3.927 -4.5320001 -1.734
3.9489999 -4.5279999 -1.738
3.9630001 -4.5159998 -1.738
3.9690001 -4.5079999 -1.737
3.9779999 -4.4899998 -1.735
4.0110002 -4.4990001 -1.744
4.0100002 -4.4689999 -1.737
4.0229998 -4.4549999 -1.7359999
4.0440001 -4.4510002 -1.74
4.0560002 -4.4349999 -1.739
4.053 -4.4190001 -1.734
4.0689998 -4.408 -1.735
4.0840001 -4.3959999 -1.7359999
4.0840001 -4.369 -1.73
4.1220002 -4.382 -1.74
4.1290002 -4.362 -1.737
4.151 -4.3569999 -1.7410001
4.1430001 -4.335 -1.734
4.1589999 -4.3249998 -1.7359999
4.1739998 -4.3130002 -1.7359999
4.2010002 -4.3140001 -1.742
4.1880002 -4.2729998 -1.73
4.2049999 -4.2639999 -1.732
4.2140002 -4.2600002 -1.733
4.224 -4.243 -1.7309999
4.2410002 -4.2340002 -1.733
4.2709999 -4.237 -1.74
4.2550001 -4.1950002 -1.728
4.2859998 -4.1989999 -1.7359999
4.2930002 -4.1789999 -1.733
4.2950001 -4.1680002 -1.7309999
4.322 -4.1680002 -1.737
4.3249998 -4.145 -1.733
4.3340001 -4.1269999 -1.7309999
4.3470001 -4.1139998 -1.7309999
4.3569999 -4.098 -1.73
4.3870001 -4.099 -1.737
4.368 -4.0689998 -1.726
4.3920002 -4.066 -1.7309999
4.4089999 -4.0560002 -1.733
4.4130001 -4.0339999 -1.729
4.4260001 -4.02 -1.729
4.427 -3.9960001 -1.724
4.4549999 -3.9960001 -1.7309999
4.4559999 -3.984 -1.729
4.4629998 -3.9649999 -1.726
4.4910002 -3.9649999 -1.733
4.4850001 -3.9349999 -1.725
4.5089998 -3.9300001 -1.73
4.5139999 -3.9100001 -1.727
4.5240002 -3.895 -1.726
4.5229998 -3.881 -1.723
4.5430002 -3.8729999 -1.726
4.5580001 -3.8610001 -1.727
4.5669999 -3.845 -1.726
4.5780001 -3.829 -1.726
4.585 -3.8110001 -1.724
4.5939999 -3.806 -1.725
4.5999999 -3.7869999 -1.723
4.6059999 -3.7679999 -1.72
4.6240001 -3.7579999 -1.723
4.6360002 -3.743 -1.723
4.6440001 -3.7260001 -1.721
4.664 -3.7179999 -1.724
4.6620002 -3.704 -1.721
4.684 -3.698 -1.726
4.6760001 -3.668 -1.7180001
4.698 -3.6619999 -1.722
4.7049999 -3.6429999 -1.72
4.7189999 -3.631 -1.721
4.7290001 -3.615 -1.721
4.7329998 -3.6059999 -1.72
4.737 -3.586 -1.717
4.7509999 -3.573 -1.7180001
4.7659998 -3.5599999 -1.72
4.7659998 -3.5369999 -1.716
4.7859998 -3.529 -1.719
4.8039999 -3.5190001 -1.721
4.8010001 -3.5050001 -1.7180001
4.809 -3.4879999 -1.717
4.836 -3.484 -1.723
4.8299999 -3.457 -1.717
4.8509998 -3.4489999 -1.721
4.8530002 -3.427 -1.717
4.8600001 -3.4100001 -1.716
4.8629999 -3.4000001 -1.715
4.881 -3.3900001 -1.7180001
4.882 -3.368 -1.714
4.9039998 -3.3610001 -1.7180001
4.9099998 -3.342 -1.717
4.9229999 -3.329 -1.7180001
4.9219999 -3.3169999 -1.716
4.9499998 -3.313 -1.722
4.9450002 -3.2869999 -1.716
4.96 -3.2739999 -1.7180001
4.9679999 -3.2579999 -1.717
4.9829998 -3.2449999 -1.719
4.9809999 -3.221 -1.714
5.0149999 -3.2320001 -1.725
5.0040002 -3.2030001 -1.717
5.0009999 -3.1789999 -1.7130001
5.0159998 -3.1659999 -1.714
5.0139999 -3.1429999 -1.71
5.0320001 -3.1329999 -1.7130001
5.0580001 -3.1270001 -1.719
5.04 -3.105 -1.711
5.0700002 -3.1010001 -1.7180001
5.0840001 -3.0880001 -1.72
5.0739999 -3.0599999 -1.7130001
5.099 -3.053 -1.7180001
5.1030002 -3.0339999 -1.716
5.1129999 -3.0179999 -1.716
5.1139998 -3.0079999 -1.715
5.1420002 -3.003 -1.721
5.1269999 -2.9719999 -1.7130001
5.1440001 -2.961 -1.716
5.1599998 -2.948 -1.7180001
5.1630001 -2.928 -1.716
5.1690001 -2.9100001 -1.714
5.1849999 -2.9089999 -1.7180001
5.184 -2.8870001 -1.715
5.1960001 -2.872 -1.716
5.2069998 -2.8570001 -1.717
5.211 -2.8380001 -1.715
5.2179999 -2.8210001 -1.714
5.2389998 -2.8210001 -1.72
5.2329998 -2.7969999 -1.715
5.243 -2.7809999 -1.716
5.2519999 -2.7650001 -1.716
5.256 -2.7460001 -1.714
5.263 -2.7279999 -1.7130001
5.276 -2.714 -1.715
5.2649999 -2.698 -1.71
5.2870002 -2.6889999 -1.714
5.2969999 -2.6730001 -1.715
5.3070002 -2.6570001 -1.716
5.3189998 -2.642 -1.717
5.3270001 -2.625 -1.717
5.3200002 -2.6010001 -1.711
5.342 -2.6010001 -1.717
5.3509998 -2.585 -1.7180001
5.3509998 -2.5639999 -1.715
5.3590002 -2.5469999 -1.715
5.3649998 -2.53 -1.714
5.3730001 -2.513 -1.714
5.381 -2.4960001 -1.714
5.3800001 -2.4849999 -1.7130001
5.3870001 -2.4679999 -1.7130001
5.3860002 -2.447 -1.71
5.4130001 -2.4389999 -1.716
5.421 -2.4219999 -1.716
5.434 -2.4070001 -1.7180001
5.4289999 -2.385 -1.714
5.434 -2.3770001 -1.714
5.4369998 -2.358 -1.7130001
5.448 -2.342 -1.714
5.4460001 -2.3210001 -1.711
5.4689999 -2.3110001 -1.716
5.4549999 -2.2850001 -1.709
5.4819999 -2.2750001 -1.716
5.4710002 -2.2609999 -1.711
5.48 -2.2449999 -1.711
5.4749999 -2.2219999 -1.707
5.4959998 -2.211 -1.712
5.4920001 -2.1889999 -1.7079999
5.5040002 -2.174 -1.71
5.5040002 -2.164 -1.709
5.506 -2.145 -1.707
5.527 -2.1329999 -1.712
5.5279999 -2.1129999 -1.71
5.5219998 -2.0910001 -1.706
5.52 -2.0710001 -1.7029999
5.5419998 -2.059 -1.7079999
5.5489998 -2.052 -1.71
5.5450001 -2.0309999 -1.706
5.5580001 -2.016 -1.7079999
5.5560002 -1.995 -1.705
5.5619998 -1.978 -1.705
5.5640001 -1.959 -1.704
5.5630002 -1.939 -1.702
5.5609999 -1.928 -1.7
5.5760002 -1.914 -1.7029999
5.5760002 -1.895 -1.701
5.5900002 -1.8789999 -1.704
5.5830002 -1.858 -1.7
5.6030002 -1.845 -1.704
5.598 -1.824 -1.701
5.6009998 -1.8150001 -1.701
5.6009998 -1.796 -1.699
5.6269999 -1.784 -1.705
5.612 -1.76 -1.699
5.6160002 -1.742 -1.698
5.6269999 -1.726 -1.7
5.6240001 -1.716 -1.698
5.6240001 -1.696 -1.697
5.6240001 -1.677 -1.6950001
5.638 -1.6619999 -1.698
5.6529999 -1.647 -1.701
5.6360002 -1.623 -1.694
5.6430001 -1.6059999 -1.694
5.652 -1.599 -1.697
5.6609998 -1.582 -1.698
5.6490002 -1.5599999 -1.692
5.6690001 -1.546 -1.697
5.6570001 -1.524 -1.692
5.6750002 -1.51 -1.696
5.6760001 -1.4910001 -1.6950001
5.6799998 -1.482 -1.6950001
5.6789999 -1.4630001 -1.694
5.691 -1.447 -1.696
5.6960001 -1.429 -1.696
5.6950002 -1.41 -1.694
5.7080002 -1.3940001 -1.697
5.6989999 -1.383 -1.694
5.7090001 -1.3660001 -1.6950001
5.723 -1.35 -1.698
5.7160001 -1.33 -1.6950001
5.7140002 -1.3099999 -1.693
5.7540002 -1.3 -1.704
5.73 -1.276 -1.6950001
5.7319999 -1.267 -1.6950001
5.743 -1.251 -1.698
5.744 -1.232 -1.697
5.7459998 -1.2130001 -1.696
5.7639999 -1.198 -1.701
5.7470002 -1.176 -1.694
5.7589998 -1.16 -1.697
5.7600002 -1.141 -1.696
5.7509999 -1.13 -1.692
5.7600002 -1.113 -1.694
5.7729998 -1.097 -1.697
5.7670002 -1.077 -1.694
5.7680001 -1.058 -1.694
5.802 -1.045 -1.7029999
5.77 -1.03 -1.692
5.7820001 -1.0140001 -1.6950001
5.7870002 -0.99599999 -1.696
5.7849998 -0.977 -1.694
5.79 -0.95899999 -1.6950001
5.8039999 -0.94300002 -1.698
5.7919998 -0.92199999 -1.694
5.8039999 -0.91500002 -1.697
5.8109999 -0.89700001 -1.698
5.8060002 -0.87800002 -1.696
5.8070002 -0.85900003 -1.6950001
5.8189998 -0.84200001 -1.698
5.8010001 -0.82099998 -1.692
5.8150001 -0.80400002 -1.6950001
5.8309999 -0.79699999 -1.7
5.8130002 -0.77600002 -1.694
5.8150001 -0.75800002 -1.694
5.8179998 -0.74000001 -1.694
5.8179998 -0.72100002 -1.693
5.8130002 -0.70200002 -1.691
5.8340001 -0.68599999 -1.697
5.8140001 -0.67400002 -1.6900001
5.8330002 -0.65799999 -1.6950001
5.8429999 -0.63999999 -1.698
5.8369999 -0.62099999 -1.6950001
5.836 -0.60299999 -1.694
5.8449998 -0.58499998 -1.697
5.8470001 -0.56699997 -1.697
5.8270001 -0.55599999 -1.6900001
5.842 -0.53799999 -1.694
5.8509998 -0.52100003 -1.697
5.849 -0.50199997 -1.6950001
5.8470001 -0.48300001 -1.694
5.823 -0.463 -1.687
5.8629999 -0.44800001 -1.698
5.8600001 -0.43799999 -1.697
5.8460002 -0.419 -1.692
5.8759999 -0.40200001 -1.701
5.8520002 -0.382 -1.694
5.869 -0.36500001 -1.698
5.8530002 -0.345 -1.693
5.8649998 -0.32699999 -1.697
5.8410001 -0.317 -1.689
5.888 -0.301 -1.7029999
5.8559999 -0.28099999 -1.693
5.8720002 -0.26300001 -1.698
5.8610001 -0.244 -1.694
5.8829999 -0.226 -1.701
5.8429999 -0.21600001 -1.688
5.8769999 -0.199 -1.698
5.8559999 -0.18000001 -1.692
5.8800001 -0.162 -1.699
5.8590002 -0.14300001 -1.692
5.875 -0.125 -1.697
5.8790002 -0.106 -1.698
5.8730001 -0.097000003 -1.697
5.881 -0.079000004 -1.699
5.862 -0.059999999 -1.693
5.8759999 -0.041999999 -1.697
5.8779998 -0.023 -1.698
5.8740001 -0.0049999999 -1.697
5.7270002 0.013 -1.711
5.7480001 0.030999999 -1.7180001
5.7249999 0.048 -1.71
5.7319999 0.057999998 -1.7130001
5.7249999 0.075000003 -1.71
5.717 0.093000002 -1.7079999
5.724 0.111 -1.71
5.7309999 0.13 -1.7130001
5.7270002 0.147 -1.712
5.723 0.16500001 -1.71
5.7399998 0.175 -1.716
5.7389998 0.193 -1.716
5.7309999 0.211 -1.714
5.7319999 0.229 -1.714
5.7179999 0.24600001 -1.71
5.7360001 0.26499999 -1.716
5.7389998 0.27399999 -1.717
5.744 0.292 -1.719
5.7259998 0.31 -1.714
5.7249999 0.32800001 -1.714
5.73 0.34599999 -1.715
5.7329998 0.36399999 -1.717
5.7329998 0.382 -1.717
5.7290001 0.391 -1.716
5.7179999 0.40799999 -1.7130001
5.724 0.42699999 -1.715
5.7309999 0.44499999 -1.7180001
5.7179999 0.463 -1.714
5.7280002 0.48100001 -1.7180001
5.7210002 0.49900001 -1.716
5.7160001 0.50800002 -1.715
5.7280002 0.52700001 -1.719
5.7090001 0.54299998 -1.714
5.7220001 0.56300002 -1.7180001
5.7259998 0.58099997 -1.72
5.711 0.59799999 -1.716
5.7189999 0.61699998 -1.719
5.7140002 0.625 -1.7180001
5.7140002 0.64300001 -1.7180001
5.7150002 0.662 -1.72
5.7150002 0.68000001 -1.72
5.7150002 0.69800001 -1.721
5.7129998 0.71600002 -1.721
5.7160001 0.73500001 -1.723
5.7069998 0.74299997 -1.72
5.7160001 0.76200002 -1.724
5.7030001 0.77899998 -1.72
5.6929998 0.79500002 -1.7180001
5.7030001 0.815 -1.722
5.691 0.83200002 -1.719
5.6999998 0.85100001 -1.723
5.6799998 0.85699999 -1.717
5.677 0.875 -1.717
5.691 0.89600003 -1.722
5.6919999 0.91399997 -1.723
5.6799998 0.93099999 -1.72
5.6810002 0.949 -1.721
5.6799998 0.96700001 -1.722
5.6719999 0.97500002 -1.72
5.6750002 0.99400002 -1.722
5.6719999 1.012 -1.722
5.6609998 1.028 -1.72
5.6630001 1.0470001 -1.721
5.6539998 1.064 -1.72
5.651 1.081 -1.72
5.651 1.091 -1.72
5.638 1.107 -1.717
5.652 1.128 -1.723
5.6279998 1.141 -1.716
5.6370001 1.1619999 -1.72
5.6259999 1.178 -1.7180001
5.6149998 1.194 -1.715
5.6279998 1.206 -1.72
5.605 1.22 -1.714
5.6160002 1.24 -1.719
5.6030002 1.256 -1.716
5.599 1.274 -1.716
5.5900002 1.29 -1.714
5.5970001 1.3099999 -1.7180001
5.5890002 1.318 -1.716
5.5890002 1.336 -1.717
5.592 1.355 -1.72
5.5890002 1.373 -1.72
5.5760002 1.3890001 -1.717
5.5679998 1.405 -1.716
5.5689998 1.415 -1.717
5.5700002 1.434 -1.719
5.5549998 1.448 -1.715
5.5630002 1.469 -1.72
5.5580001 1.487 -1.72
5.546 1.502 -1.717
5.5450001 1.521 -1.7180001
5.513 1.521 -1.709
5.5289998 1.544 -1.715
5.5219998 1.561 -1.715
5.5019999 1.574 -1.71
5.4879999 1.589 -1.707
5.4980001 1.61 -1.712
5.4840002 1.625 -1.709
5.4980001 1.638 -1.714
5.4829998 1.653 -1.711
5.467 1.6670001 -1.707
5.4650002 1.6849999 -1.709
5.467 1.705 -1.711
5.46 1.721 -1.71
5.4530001 1.738 -1.71
5.4650002 1.751 -1.715
5.441 1.762 -1.709
5.4429998 1.7819999 -1.711
5.4429998 1.8 -1.7130001
5.4349999 1.817 -1.712
5.4380002 1.837 -1.715
5.434 1.855 -1.716
5.4169998 1.858 -1.711
5.415 1.877 -1.712
5.4289999 1.9 -1.719
5.4070001 1.9119999 -1.714
5.408 1.931 -1.716
5.4070001 1.95 -1.7180001
5.3720002 1.947 -1.707
5.335 1.9529999 -1.696
5.3039999 1.961 -1.688
5.2550001 1.962 -1.673
5.2150002 1.965 -1.6619999
5.1760001 1.97 -1.651
5.1329999 1.972 -1.638
5.092 1.966 -1.625
5.0679998 1.975 -1.619
5.0549998 1.988 -1.617
5.0450001 2.003 -1.615
5.0279999 2.0139999 -1.612
4.9879999 2.017 -1.6
4.973 2.029 -1.597
4.9710002 2.0369999 -1.598
4.9510002 2.0469999 -1.5930001
4.9219999 2.053 -1.585
4.9120002 2.0669999 -1.584
4.9000001 2.0799999 -1.582
4.8969998 2.0969999 -1.5829999
4.8740001 2.1059999 -1.5779999
4.8610001 2.109 -1.574
4.8330002 2.115 -1.567
4.8309999 2.1329999 -1.569
4.7930002 2.1340001 -1.558
4.7950001 2.1530001 -1.561
4.7870002 2.1670001 -1.5599999
4.7379999 2.1630001 -1.545
4.744 2.175 -1.548
4.7280002 2.1860001 -1.545
4.6999998 2.191 -1.538
4.6880002 2.2030001 -1.536
4.6999998 2.227 -1.543
4.6589999 2.2260001 -1.531
4.6279998 2.2290001 -1.522
4.5879998 2.2190001 -1.5089999
4.5879998 2.2360001 -1.512
4.5830002 2.2520001 -1.513
4.5580001 2.2579999 -1.506
4.5549998 2.2739999 -1.508
4.5890002 2.3080001 -1.522
4.5999999 2.323 -1.528
4.573 2.3269999 -1.52
4.5890002 2.3540001 -1.529
4.5479999 2.3510001 -1.517
4.5469999 2.369 -1.5190001
4.5580001 2.3929999 -1.526
4.566 2.415 -1.531
4.5479999 2.415 -1.527
4.5489998 2.434 -1.53
4.506 2.4289999 -1.517
4.494 2.4400001 -1.515
4.4809999 2.4519999 -1.513
4.4699998 2.464 -1.512
4.4489999 2.471 -1.507
4.4569998 2.484 -1.511
4.4499998 2.4990001 -1.512
4.434 2.5079999 -1.5089999
4.4580002 2.54 -1.52
4.4320002 2.5439999 -1.5140001
4.415 2.553 -1.511
4.3730001 2.5469999 -1.498
4.3470001 2.5409999 -1.49
4.342 2.5569999 -1.4910001
4.3439999 2.576 -1.495
4.3709998 2.6099999 -1.508
4.348 2.615 -1.502
4.3249998 2.6199999 -1.497
4.3509998 2.654 -1.5089999
4.3509998 2.664 -1.511
4.2989998 2.651 -1.495
4.3330002 2.6900001 -1.511
4.2950001 2.6860001 -1.5
4.2820001 2.6960001 -1.498
4.2459998 2.6930001 -1.488
4.165 2.6600001 -1.46
4.2719998 2.737 -1.502
4.2729998 2.757 -1.506
4.263 2.7690001 -1.505
4.256 2.783 -1.506
4.2420001 2.7939999 -1.5039999
4.23 2.8050001 -1.503
4.2270002 2.813 -1.503
4.21 2.8210001 -1.5
4.2189999 2.845 -1.507
4.178 2.8369999 -1.495
4.1240001 2.8199999 -1.477
4.1490002 2.8559999 -1.4910001
4.1440001 2.8710001 -1.492
4.0700002 2.8299999 -1.465
4.0999999 2.8699999 -1.48
4.0630002 2.8629999 -1.469
4.1149998 2.9189999 -1.493
4.085 2.918 -1.485
4.0619998 2.9200001 -1.48
4.1030002 2.9690001 -1.499
4.0760002 2.96 -1.4910001
4.0580001 2.9660001 -1.487
4.0469999 2.977 -1.4859999
4.0009999 2.9630001 -1.472
3.9879999 2.973 -1.47
3.9849999 2.99 -1.473
3.9920001 3.0150001 -1.48
3.9649999 3.0039999 -1.47
3.9430001 3.0079999 -1.466
3.947 3.03 -1.471
3.957 3.0580001 -1.479
3.9809999 3.096 -1.492
3.977 3.1129999 -1.495
3.9489999 3.1110001 -1.488
3.9549999 3.1259999 -1.492
3.95 3.142 -1.494
3.9460001 3.1589999 -1.4960001
3.914 3.1530001 -1.487
3.8870001 3.1530001 -1.48
3.8740001 3.1619999 -1.479
3.878 3.1849999 -1.485
3.885 3.201 -1.489
3.8050001 3.1570001 -1.461
3.8139999 3.184 -1.469
3.779 3.175 -1.4579999
3.8069999 3.2190001 -1.474
3.7449999 3.187 -1.452
3.7349999 3.1889999 -1.45
3.7279999 3.2030001 -1.452
3.77 3.26 -1.474
3.8050001 3.3099999 -1.492
3.796 3.323 -1.493
3.8080001 3.355 -1.503
3.7720001 3.3440001 -1.492
3.7780001 3.3599999 -1.497
3.7579999 3.3629999 -1.492
3.7539999 3.382 -1.495
3.7 3.3540001 -1.477
3.6719999 3.3499999 -1.469
3.6589999 3.359 -1.4680001
3.648 3.3710001 -1.4680001
3.6440001 3.378 -1.469
3.642 3.3970001 -1.472
3.622 3.3989999 -1.4680001
3.628 3.4260001 -1.475
3.5880001 3.4100001 -1.4630001
3.566 3.411 -1.4579999
3.5569999 3.4230001 -1.4579999
3.5439999 3.4219999 -1.455
3.5220001 3.4230001 -1.45
3.5610001 3.4820001 -1.472
3.5320001 3.4760001 -1.464
3.5510001 3.516 -1.478
3.5280001 3.5150001 -1.472
3.52 3.529 -1.474
3.51 3.53 -1.472
3.5179999 3.5599999 -1.48
3.4820001 3.5469999 -1.469
3.4790001 3.566 -1.473
3.461 3.5699999 -1.47
3.4560001 3.586 -1.472
3.457 3.6110001 -1.478
3.4649999 3.6300001 -1.485
3.434 3.6199999 -1.475
3.4530001 3.6630001 -1.489
3.4030001 3.6329999 -1.472
3.388 3.6400001 -1.47
3.402 3.678 -1.482
3.3989999 3.697 -1.4859999
3.3729999 3.6819999 -1.477
3.3659999 3.697 -1.478
3.3570001 3.71 -1.48
3.3369999 3.7119999 -1.476
3.326 3.723 -1.476
3.3269999 3.747 -1.482
3.2809999 3.7079999 -1.4630001
3.244 3.6900001 -1.451
3.1889999 3.6500001 -1.4299999
3.26 3.7550001 -1.47
3.234 3.7490001 -1.4630001
3.2190001 3.7550001 -1.461
3.197 3.7539999 -1.456
3.2 3.7690001 -1.461
3.1789999 3.7690001 -1.456
3.1889999 3.803 -1.467
3.151 3.783 -1.454
3.188 3.8510001 -1.478
3.1570001 3.839 -1.469
3.1500001 3.855 -1.472
3.1489999 3.8659999 -1.474
3.099 3.8299999 -1.455
3.1029999 3.859 -1.4630001
3.0899999 3.8670001 -1.4630001
3.0510001 3.8440001 -1.449
3.0020001 3.8069999 -1.4299999
3.027 3.8629999 -1.449
3.027 3.875 -1.452
2.9909999 3.855 -1.4400001
2.994 3.8840001 -1.448
2.9630001 3.869 -1.438
2.983 3.9189999 -1.455
2.977 3.938 -1.4579999
2.973 3.9579999 -1.4630001
2.971 3.9679999 -1.465
2.971 3.994 -1.472
2.9549999 3.9990001 -1.47
2.9419999 4.007 -1.469
2.9159999 3.9979999 -1.462
2.9089999 4.0139999 -1.465
2.8989999 4.0279999 -1.467
2.895 4.0359998 -1.4680001
2.869 4.026 -1.461
2.8080001 3.967 -1.434
2.7920001 3.971 -1.432
2.855 4.0869999 -1.474
2.822 4.0669999 -1.4630001
2.789 4.0469999 -1.452
2.756 4.013 -1.436
2.7780001 4.072 -1.456
2.757 4.0689998 -1.452
2.711 4.0289998 -1.433
2.7249999 4.0770001 -1.448
2.6930001 4.0570002 -1.437
2.711 4.1110001 -1.455
2.6570001 4.0440001 -1.427
2.6440001 4.0510001 -1.427
2.618 4.04 -1.419
2.6140001 4.0609999 -1.424
2.602 4.0710001 -1.425
2.553 4.0229998 -1.403
2.5840001 4.099 -1.429
2.5799999 4.1069999 -1.431
2.5569999 4.099 -1.425
2.5339999 4.0910001 -1.419
2.5409999 4.1300001 -1.4299999
2.4890001 4.0760002 -1.4069999
2.5020001 4.125 -1.4220001
2.493 4.125 -1.421
2.517 4.1929998 -1.444
2.438 4.092 -1.403
2.47 4.1750002 -1.431
2.467 4.2010002 -1.438
2.4690001 4.2329998 -1.447
2.425 4.1900001 -1.428
2.4360001 4.223 -1.439
2.4159999 4.2189999 -1.4349999
2.3770001 4.1820002 -1.418
2.3499999 4.165 -1.409
2.3380001 4.1739998 -1.41
2.339 4.2059999 -1.419
2.3380001 4.2350001 -1.427
2.3269999 4.2319999 -1.424
2.3329999 4.2740002 -1.437
2.2909999 4.23 -1.418
2.29 4.2589998 -1.426
2.3039999 4.316 -1.444
2.2809999 4.3070002 -1.438
2.279 4.336 -1.446
2.256 4.309 -1.4349999
2.26 4.348 -1.447
2.2520001 4.3670001 -1.451
2.2260001 4.3499999 -1.442
2.1860001 4.3070002 -1.424
2.1960001 4.3590002 -1.441
2.1389999 4.2810001 -1.41
2.1340001 4.303 -1.416
2.0739999 4.2010002 -1.378
2.132 4.3509998 -1.429
2.0880001 4.296 -1.4069999
2.0650001 4.2839999 -1.4
2.0969999 4.3829999 -1.433
2.085 4.3940001 -1.4349999
2.052 4.3429999 -1.416
2.052 4.3769999 -1.425
2.0079999 4.3189998 -1.403
2.0079999 4.355 -1.413
2.0020001 4.3779998 -1.419
2.0020001 4.414 -1.4299999
1.9910001 4.4260001 -1.432
1.973 4.4039998 -1.423
1.959 4.4109998 -1.423
1.96 4.4499998 -1.4349999
1.96 4.4889998 -1.446
1.95 4.5040002 -1.449
1.938 4.5149999 -1.451
1.932 4.54 -1.4579999
1.918 4.5279999 -1.452
1.9 4.5250001 -1.449
1.886 4.5310001 -1.449
1.881 4.5580001 -1.456
1.863 4.5549998 -1.4529999
1.8430001 4.5469999 -1.449
1.802 4.4889998 -1.427
1.802 4.5279999 -1.438
1.744 4.4039998 -1.3940001
1.772 4.5149999 -1.431
1.733 4.4590001 -1.41
1.715 4.4520001 -1.405
1.724 4.5180001 -1.426
1.711 4.527 -1.427
1.7 4.5190001 -1.424
1.693 4.5440001 -1.4299999
1.682 4.5560002 -1.433
1.665 4.5539999 -1.4299999
1.652 4.5630002 -1.432
1.6440001 4.586 -1.438
1.623 4.5749998 -1.432
1.62 4.586 -1.4349999
1.601 4.5809999 -1.432
1.581 4.5700002 -1.426
1.568 4.5780001 -1.427
1.548 4.5669999 -1.4220001
1.538 4.5840001 -1.426
1.513 4.5570002 -1.415
1.5 4.5430002 -1.41
1.506 4.6069999 -1.4299999
1.489 4.6059999 -1.428
1.4809999 4.631 -1.4349999
1.472 4.652 -1.4400001
1.444 4.6149998 -1.426
1.406 4.5430002 -1.4
1.423 4.6230001 -1.427
1.406 4.6209998 -1.424
1.395 4.6360002 -1.428
1.369 4.6040001 -1.416
1.364 4.6389999 -1.426
1.3559999 4.665 -1.433
1.341 4.6680002 -1.433
1.331 4.6609998 -1.4299999
1.313 4.6539998 -1.426
1.299 4.6599998 -1.427
1.2819999 4.6550002 -1.424
1.275 4.6859999 -1.433
1.266 4.71 -1.439
1.248 4.7049999 -1.436
1.2410001 4.7090001 -1.437
1.2029999 4.6240001 -1.408
1.205 4.6890001 -1.428
1.181 4.658 -1.416
1.1720001 4.6830001 -1.424
1.158 4.6929998 -1.425
1.149 4.7179999 -1.433
1.143 4.724 -1.434
1.1289999 4.7309999 -1.4349999
1.099 4.6719999 -1.414
1.086 4.6830001 -1.4170001
1.0650001 4.6620002 -1.409
1.057 4.6929998 -1.418
1.045 4.7059999 -1.421
